ply
format ascii 1.0
element vertex 1109
property double x
property double y
property double z
property uchar red
property uchar green
property uchar blue
end_header
-28.076160 -19.128950 17.604259 175 163 151
-28.003962 -19.151687 14.633881 202 186 167
-28.010255 -19.095965 14.608533 202 186 167
-30.938279 19.369686 34.562600 170 154 144
-30.717609 20.206301 41.173894 146 130 114
-27.734971 -19.244020 11.354832 183 167 152
-30.652264 20.313372 40.689411 161 145 129
-30.584162 20.423526 40.099845 164 142 135
-30.333187 20.172147 35.651045 152 137 121
-30.280716 19.962912 30.751053 147 129 116
-30.242702 19.270011 30.679032 147 129 116
-27.114341 -27.401077 11.406736 225 212 191
-29.362617 20.277727 35.060578 184 170 160
-27.947451 20.517975 31.940460 196 187 180
-28.099928 20.828787 52.206212 189 188 183
-27.127213 20.129034 36.243958 174 164 152
-26.823735 20.429028 35.124407 116 147 191
-26.140995 -14.490437 14.075992 191 170 147
-26.779575 20.374000 34.615964 41 99 189
-26.136753 -14.384052 15.144711 195 174 154
-26.057115 -16.831748 12.511080 185 159 126
-25.740359 -19.001194 11.492120 199 184 162
-25.888966 20.366316 38.109934 196 186 178
-25.274786 19.974279 33.214051 186 173 162
-25.328106 -19.176361 11.104484 222 205 184
-25.316327 -11.365433 18.412088 199 180 155
-25.167168 -10.639545 17.093581 178 163 139
-25.068177 -10.432992 16.079602 193 181 158
-24.645652 -9.384672 19.037613 209 193 176
-23.743359 20.437321 26.364687 175 168 143
-22.997943 22.716589 37.708812 44 57 43
-24.113523 -16.562997 12.714011 203 182 156
-24.137378 -18.883548 11.519379 204 178 152
-23.918984 -14.254967 13.978102 189 170 153
-23.550275 -12.223644 14.589939 221 195 168
-23.825016 -20.947542 11.237601 222 205 184
-23.342109 -14.211871 13.854463 186 166 136
-22.570883 -7.282430 17.634419 207 190 162
-23.267397 -18.746833 11.690656 197 172 139
-23.919198 -26.157214 11.308018 213 195 174
-22.056633 -2.959044 19.227729 187 168 149
-18.994851 25.926489 34.852857 178 195 211
-23.606764 -26.898428 11.298958 203 187 155
-21.754983 -9.392470 16.011857 208 188 162
-20.923005 0.017477 20.456002 204 179 157
-20.896500 -0.115977 20.366826 216 192 170
-22.782752 -20.910971 11.169073 222 202 178
-22.044815 -13.950457 13.889071 191 171 146
-22.323464 -23.471894 11.217749 224 208 180
-21.587024 -19.819317 11.147828 224 210 185
-21.191808 -18.567433 11.183962 167 142 113
-13.595594 29.250805 45.594642 123 129 119
-18.856110 -6.820419 17.381767 134 119 91
-20.322308 -16.184071 13.285142 201 183 160
-17.224965 0.378391 20.755499 188 166 139
-19.841503 -16.146298 12.562453 218 187 159
-20.378588 -22.244676 11.313935 223 206 180
-19.217264 -18.303624 12.090799 171 153 138
-20.589651 -26.947578 11.314841 108 131 56
-3.711008 43.202589 49.227143 153 152 122
-6.544087 27.258942 34.497235 196 213 228
-17.612870 -18.226230 11.814614 186 160 133
-17.439048 -18.163972 11.965752 131 112 97
-14.521256 -8.667209 16.040418 187 172 153
-15.718977 -13.313316 14.072813 205 179 154
-16.309235 -15.763193 12.899831 200 178 156
-16.839008 -18.110947 11.582000 187 157 130
-12.558874 -3.790179 17.880828 199 176 163
-18.883812 -26.829781 11.291404 120 127 78
-2.340069 27.704853 39.063454 46 91 71
-1.648009 27.499249 29.461699 19 51 27
-1.679216 27.676552 37.966848 12 35 21
-14.210379 -13.279051 14.036114 197 172 150
-19.178898 -28.635742 11.260883 97 97 85
-13.757604 -13.181734 14.157618 191 169 142
-12.887376 -10.755528 15.281560 189 163 140
-12.889732 -10.748252 15.281253 189 163 140
-14.978869 -17.933456 11.679525 192 170 144
-17.535689 -25.692239 11.309011 180 164 148
-17.828143 -26.624596 11.284913 123 116 65
-14.288109 -17.990394 11.246725 196 173 151
4.580985 27.462056 21.629176 55 112 71
-9.066545 -7.891839 16.008093 216 186 166
-11.095766 -13.036710 14.427209 153 142 126
-11.608408 -14.916742 12.689872 206 185 165
-7.827490 -5.647617 17.822308 182 162 140
-6.483721 -3.175339 18.509009 194 171 152
-16.040301 -26.093247 11.271929 136 124 100
-15.980984 -26.403142 11.230097 180 168 151
7.838095 28.302938 29.456372 61 93 72
-11.155648 -16.249593 13.791972 218 199 183
-10.491106 -15.161834 12.969815 181 157 132
-15.436082 -26.087611 11.245753 184 170 156
-9.967948 -15.151603 12.910184 198 168 142
-7.483809 -10.319945 14.671211 185 151 116
-8.179083 -12.690770 13.590947 172 145 118
-8.170421 -12.685548 13.591226 187 160 143
-8.036036 -12.641037 13.337631 220 199 179
-3.333365 -2.861553 18.464731 213 182 156
2.066172 11.501248 50.930014 71 82 52
12.750408 29.396222 33.421294 139 155 171
-4.077676 -5.259132 17.489039 192 172 158
0.189208 3.347411 25.041100 150 152 145
-15.011547 -27.506992 11.269017 72 71 53
-14.672959 -27.121188 11.230194 129 126 113
-8.155169 -14.983653 12.626650 187 170 150
14.570904 29.273650 35.128603 198 215 228
-7.997062 -15.304864 12.221871 236 215 195
16.999953 34.726466 46.391090 176 184 185
6.655769 15.863980 51.033153 85 97 62
17.931073 35.484867 45.750016 71 74 67
-32.114202 19.804100 47.600357 127 83 85
-31.679048 19.746776 22.582689 110 92 72
-31.713063 19.916029 22.577517 105 88 70
-30.842379 18.703389 34.448942 175 155 143
-26.118159 -13.638262 21.429941 198 181 154
-24.084740 -28.422864 11.281006 150 137 108
-30.002424 19.924952 46.695154 186 185 180
-29.896936 20.272377 50.349038 191 185 175
-29.264201 20.074576 24.958598 164 150 129
-28.767950 18.549202 23.615666 126 109 91
-25.446226 -11.694531 17.993893 181 161 134
-28.818258 19.586584 34.353541 187 180 178
-25.062344 -12.044474 15.339672 164 143 121
-27.153019 18.116099 24.701628 103 91 86
-24.387450 -12.064807 15.515825 153 133 109
-27.079399 20.582385 42.769113 184 179 171
-26.670481 20.146413 39.980854 191 177 166
-26.293981 20.524091 36.053994 146 125 111
-26.215502 20.958191 43.593301 179 167 154
-26.027290 20.237539 51.843249 182 173 165
-25.500295 21.006065 51.422432 151 134 124
-24.008515 20.785552 35.640333 168 148 125
-21.688753 -21.762053 11.197134 210 189 164
-21.791247 -2.193243 19.604360 194 174 149
-21.388093 -25.281545 11.227180 224 206 182
-20.992959 -28.900038 11.219912 98 99 94
-20.139932 -4.573731 18.435506 221 194 178
-19.998012 -18.440423 11.866276 196 173 149
-18.412911 26.104506 34.467452 193 196 201
-20.086697 -21.111289 11.183723 214 194 169
-19.972565 -19.469951 11.219737 209 193 176
-19.385258 -11.381302 15.273898 215 194 166
-17.354501 26.027904 34.837242 185 205 208
-17.368688 26.128404 34.859640 185 205 208
-18.431966 -19.057177 11.083155 229 209 189
-16.062173 14.283882 51.338061 76 97 66
-19.056250 -26.966769 11.338140 137 151 94
-19.179879 -28.655361 11.272048 110 107 103
-13.941548 26.414537 40.576469 139 157 166
-16.255255 -1.705173 19.232143 212 183 169
-15.167128 -1.770195 19.179885 210 178 157
-16.521025 -13.456600 13.893746 201 178 155
-15.571500 -6.435273 17.197794 187 172 153
-17.000550 -18.171404 11.148150 176 158 141
-17.743393 -24.929589 11.243030 223 211 188
-12.756124 15.564166 51.692676 77 93 64
-14.772405 -6.386072 17.285280 189 172 157
-11.845813 13.730089 51.194771 10 20 4
-15.569061 -18.037004 11.689767 194 164 136
-13.161600 -4.552832 16.504279 199 183 164
-13.808790 -13.252863 13.634666 205 175 147
-4.840011 27.035301 22.652516 53 57 54
-14.449534 -17.890592 11.822021 197 174 145
-16.327153 -26.228690 11.169696 232 216 200
-13.120258 -13.130043 13.688733 220 193 164
-15.860155 -26.116471 11.287326 135 122 106
-2.111372 27.548735 38.344234 44 61 50
-4.798955 16.361018 50.465445 61 79 49
-12.402395 -17.768553 11.652047 193 177 155
-0.164384 27.978009 38.140639 165 181 188
-11.052680 -15.224937 12.909588 180 155 125
-11.446616 -17.139953 11.563106 187 166 144
-5.874170 -3.133261 18.832800 126 105 82
-13.471826 -26.505587 11.273358 71 68 54
-7.115110 -8.115731 16.303800 189 175 161
-10.201218 -17.509646 11.251413 174 141 104
-13.404122 -27.154930 11.280741 132 135 122
-9.555735 -17.428546 11.190270 165 132 98
-7.410794 -12.341142 14.263261 166 148 128
-8.946033 -17.421002 11.224335 163 142 118
-7.763926 -14.898673 12.649870 191 174 154
-6.864070 -12.582192 14.036867 185 164 144
-12.138781 -26.185030 11.170438 69 66 45
-0.948104 1.753621 20.596059 217 189 161
-6.843534 -14.801265 13.214315 141 128 111
10.403521 28.846895 38.429436 141 160 177
-7.210874 -17.358904 11.020471 221 201 176
0.206512 0.389894 21.277569 211 181 169
12.880527 29.117578 35.050567 205 218 232
12.881508 29.122531 35.055410 205 218 232
14.615290 29.212444 34.026371 208 218 230
-22.534539 -18.720010 11.572765 203 177 152
-29.872879 19.956441 45.188031 185 179 168
-28.680863 16.305400 29.376877 184 174 166
-23.129577 -11.673723 15.813278 200 185 163
-23.669539 -5.830999 19.227586 191 177 148
-28.084257 20.494656 34.411672 175 170 159
-25.763184 19.587593 22.486614 78 61 51
-25.751517 19.918191 23.847267 149 137 123
-25.090816 20.339697 29.926756 180 176 164
-24.885869 20.274150 23.529555 170 152 136
-20.441738 -6.910149 17.240570 215 189 164
-23.497738 24.504456 31.726693 163 162 128
-19.358923 -16.104260 12.656748 216 191 163
-21.361614 14.324063 25.445961 15 15 17
-20.005501 12.958109 22.563410 43 68 64
-17.266478 -18.200242 11.180372 194 171 151
-16.988009 -18.161040 11.485935 210 183 156
-16.399348 -18.112636 11.714523 212 189 165
-16.208218 16.519639 50.829776 67 84 51
-15.543416 -21.031362 11.119992 211 191 167
-12.012701 26.554022 29.079023 16 32 24
-14.076212 -22.260214 11.222439 213 206 181
-12.962003 -8.597658 15.883430 191 160 133
-12.786782 -10.750383 14.942445 192 161 132
-12.784913 -10.747513 14.942699 192 161 132
-12.672250 -15.388399 12.322913 180 162 144
-11.576027 -3.964794 17.963839 220 193 171
-11.011871 -17.543472 11.923225 169 139 111
-9.962671 -13.107690 13.558604 197 174 156
-2.266987 28.025073 39.122411 54 92 68
-8.252931 -17.347625 11.267463 181 154 124
-10.174816 -26.439638 11.194263 170 174 159
-10.173778 -26.429139 11.191265 144 143 129
-7.502150 -21.612994 11.294652 199 181 163
-6.039008 -17.074712 11.254747 186 160 141
-0.083799 4.223871 26.844397 216 216 211
-5.561007 -17.087059 11.200747 170 144 122
-8.172445 -25.717548 11.325766 179 167 142
-4.365886 -14.611483 13.276790 170 151 134
-3.225968 -12.343288 13.316692 205 186 172
-2.402037 -9.680498 15.486749 167 146 129
-2.406716 -9.728014 15.473954 167 146 129
-4.551551 -16.966926 11.362295 205 181 149
10.817686 28.848543 30.550120 186 203 211
-3.869383 -16.896716 11.486810 200 171 139
0.989469 -3.364944 19.867978 223 195 176
-6.641778 -25.597911 11.228756 159 146 120
-4.287721 -20.536919 11.139440 191 173 152
-4.324790 -20.638391 11.180359 206 186 161
1.076723 -5.700823 23.443764 173 179 179
18.780333 37.124763 28.674599 54 40 29
-26.573948 20.434492 34.943853 117 157 218
-26.091001 20.870180 39.146023 190 180 170
-18.134298 -13.678148 13.498271 176 149 122
-25.547507 20.109481 34.826365 190 204 230
-18.984047 -4.347586 19.195415 195 177 150
-22.648020 24.962521 40.338411 142 157 157
-20.406662 20.364868 21.052563 141 110 79
-14.469021 -15.485677 12.762012 184 165 148
-16.537603 26.615757 33.613319 150 174 187
-12.687744 -15.402870 12.312241 166 134 105
-12.607362 -15.403895 12.723133 186 171 152
-15.824853 26.842266 33.780310 194 210 228
-11.749730 -13.034970 14.079787 191 166 142
-11.761544 -8.260139 16.341599 189 163 138
-8.869101 27.126809 33.080468 191 213 225
-7.632298 -14.906452 12.302054 183 148 115
-6.528136 -3.194422 18.419019 211 179 150
-6.919740 -14.609501 13.134490 141 128 111
-7.134126 -19.874217 11.199254 222 209 192
-5.556670 -5.384159 17.424712 218 196 170
-5.855538 -14.750795 12.417045 212 181 153
-1.234267 27.248324 28.624691 62 88 75
-1.356031 19.488788 49.942676 230 230 191
-2.646100 -0.531126 19.005272 202 177 160
-3.172841 -7.783412 16.403371 177 156 139
-4.286359 -16.913431 11.404184 190 164 139
-4.020136 -16.862773 11.470966 190 161 128
-0.548469 2.871088 26.065569 37 32 25
-3.511785 -16.922845 11.209551 167 147 123
-3.199730 -16.828095 11.500857 201 171 143
-2.568238 -14.524886 12.545553 185 166 149
-1.926156 -14.427937 12.504456 186 167 150
0.390824 -5.681358 16.814666 208 187 170
-1.992394 -16.722179 11.186369 172 152 125
-3.936636 -25.318113 11.303480 207 190 168
-0.720817 -14.407438 12.854795 201 182 165
10.080383 29.540189 41.138334 152 167 180
0.887373 -11.893385 14.025336 206 185 165
12.695860 29.314050 33.395304 162 176 192
13.630507 29.272267 34.723210 208 212 225
14.056605 28.701987 29.460441 192 201 218
14.849201 29.322594 33.436802 145 163 180
1.665088 -15.178564 12.310375 140 121 105
-1.688359 -25.159370 11.221438 188 169 154
1.530024 -16.390455 11.350180 208 188 163
1.675055 -16.622486 11.906189 219 189 174
17.849167 35.178433 45.724001 76 78 66
-12.063864 -12.985690 13.768459 204 173 142
-9.466555 -8.043773 16.081187 182 149 115
-9.076051 -10.381336 15.207717 193 180 161
-6.727786 -12.521642 13.446292 184 153 125
-6.914060 -10.282672 14.858733 205 176 144
-5.461424 -17.021187 11.397450 200 169 131
-4.832055 -24.170789 11.214603 200 182 158
-4.483878 -22.301648 11.262127 209 193 174
-6.537345 27.420022 34.583817 188 206 216
-4.541028 -8.290730 15.980410 191 165 145
-4.699051 -3.030414 18.298738 209 178 149
-3.851355 -14.470740 12.883271 203 176 149
-3.128819 -7.465285 16.347173 208 176 149
-2.741572 27.887361 29.184483 18 49 28
-2.811681 -9.803316 15.173057 200 172 160
-2.091762 -2.836710 18.421343 196 169 145
-2.620382 -29.171261 11.287284 135 129 128
-1.914796 -16.979106 11.113299 198 179 165
0.017197 -7.175206 16.338699 188 166 145
0.743267 -5.247452 17.588499 161 146 135
-0.933629 -26.780571 11.244556 143 138 131
0.930506 -14.097225 12.609908 189 170 153
1.521919 -10.724095 14.605823 226 202 180
7.392508 28.076102 21.719811 42 105 62
2.003544 -16.240911 12.075801 195 169 154
7.815116 27.937552 28.942347 19 54 28
7.214888 28.592114 40.978962 148 165 183
2.023513 -16.023952 18.113542 243 246 249
2.069441 -16.194685 17.662845 138 137 131
9.733352 28.230230 23.561382 64 117 87
8.433267 28.629151 39.247188 37 87 54
1.237587 -24.881508 11.250868 194 179 161
3.221413 -16.182274 11.663006 193 169 145
3.682360 -13.887356 12.974892 202 179 158
6.334652 0.280951 19.566773 219 192 168
1.985257 -24.800199 11.238305 242 221 208
12.059759 29.266812 30.546244 189 206 217
3.502300 -19.437598 11.100550 232 216 199
14.504716 29.869835 33.374747 175 187 202
6.301561 -11.293851 13.804878 205 181 154
7.761817 -4.109354 17.852625 177 158 138
5.792012 -15.991734 11.184351 190 165 142
5.906450 -15.960672 11.694628 196 172 143
13.758240 17.223510 26.275777 14 15 19
17.719885 33.436577 46.580401 21 34 17
7.282516 -15.837259 11.462347 209 182 155
9.174321 -8.692324 14.780135 213 187 164
18.672408 33.928273 46.055958 152 153 147
18.886499 30.603590 40.614414 86 98 86
20.060124 25.410158 21.458001 120 92 75
-8.006987 -12.592784 14.094630 187 167 146
-7.633657 -12.567168 13.546708 209 182 155
-4.801486 -17.000014 11.560630 197 171 147
-13.716550 26.676946 44.896884 63 80 62
-6.104023 -7.781940 15.995091 216 188 164
-2.186607 -25.288535 11.198492 77 81 42
-5.301250 -9.964194 14.999290 193 172 155
-2.202186 -14.392687 12.907573 182 167 151
-1.624492 -14.381382 12.962796 194 178 162
-1.122475 -14.302496 12.750595 193 174 157
-2.155241 -5.079765 17.553360 215 188 159
0.131855 -14.165578 12.669742 204 183 168
-2.426653 27.070371 22.182287 9 20 5
-2.007788 26.892425 21.816530 34 56 42
-1.674303 27.342005 28.702063 26 51 38
1.640366 -15.303193 12.563721 194 174 153
2.296438 -16.224207 11.654553 190 172 148
2.685727 -16.203737 11.945911 190 170 148
4.039600 -9.135149 14.789193 200 173 155
4.419873 -6.774848 16.191810 215 185 163
4.771898 -11.425515 13.838535 206 176 150
7.408853 28.375028 21.687165 42 105 62
5.790071 -6.679643 16.302743 182 162 138
4.907864 -24.457713 11.317189 233 214 190
11.911698 29.889636 25.346770 56 63 57
10.510960 29.079238 38.307348 138 156 174
10.510525 28.961703 38.306025 138 156 174
7.457482 -15.862085 11.142394 187 171 147
5.380622 -31.849871 11.272462 119 114 107
9.437732 -4.008107 17.885620 186 168 149
13.798400 29.424325 29.729308 185 198 215
13.762616 29.021320 29.709995 186 200 215
13.126885 17.033242 21.204416 148 126 103
10.805465 -1.608662 18.272106 203 177 156
9.952483 -10.949613 13.731846 206 177 149
9.355388 -15.655291 11.527889 216 192 168
8.490552 -24.339679 11.176141 217 210 191
11.356384 -13.167381 12.307918 198 171 151
11.788576 -10.744678 13.602232 166 146 123
11.718186 -15.440810 11.830554 206 180 161
12.771619 -10.705435 13.773672 201 173 150
12.362654 -13.055635 13.227630 170 155 133
20.801650 24.906190 24.042597 187 167 142
18.211981 26.143153 46.599965 125 130 120
18.190387 26.030485 46.553640 125 130 120
19.718770 28.733925 41.675950 111 100 75
14.991838 -3.454091 17.409335 219 197 173
18.884551 24.801865 45.886359 60 59 40
18.846388 24.641267 45.849064 54 55 47
12.693192 -15.332921 11.648175 197 169 142
19.932911 26.712657 44.915213 73 69 49
21.372599 25.269932 32.306222 95 124 114
21.270338 25.063574 33.526707 131 143 134
21.301882 25.236652 34.487730 112 141 129
21.304887 25.232993 37.501361 212 198 183
-15.189008 26.302433 33.571080 169 190 205
-2.104529 -9.672842 15.218797 148 127 113
1.990643 -16.158129 17.648377 127 111 109
1.547562 -4.700012 17.341600 185 163 150
2.186656 -7.078851 16.395055 172 149 132
2.776596 -6.931573 16.183355 194 171 150
3.420883 -9.163692 15.373176 173 154 137
3.106045 -6.987901 16.444150 164 143 121
-2.590954 27.710678 37.989482 17 37 23
-2.761065 26.151501 48.529932 20 39 20
6.051128 -24.488603 11.095647 88 90 67
-2.291780 27.564580 39.030874 35 68 52
4.914294 -16.160768 11.163850 193 177 153
3.820307 -6.824356 16.051558 203 180 157
5.225769 -4.185655 17.087859 204 175 152
5.954358 -6.624618 16.513064 181 157 135
7.687347 -11.124003 14.030365 201 175 148
8.765861 -11.078933 14.128084 178 147 126
7.775250 28.426009 28.992059 30 52 47
9.588680 28.932759 29.082197 22 58 34
10.308501 -6.245722 16.682105 151 131 112
10.320601 -27.636145 11.272137 106 102 91
11.863474 -10.715169 14.073046 198 166 140
12.824797 28.991713 33.903809 178 194 208
11.995535 -15.429292 11.377550 215 184 159
12.131283 -13.078444 12.490317 170 149 129
12.133625 -15.373991 11.160752 205 173 148
13.659580 29.123321 34.658834 204 199 214
12.630295 -6.098498 16.664344 170 147 124
14.168602 29.199928 32.965294 191 207 220
12.763984 -10.807008 13.815214 196 171 145
15.442606 29.545268 30.351510 193 207 221
13.213927 -15.297160 11.112446 161 140 118
14.119007 -12.878693 12.937968 184 160 132
14.544058 -8.197490 14.939168 206 183 161
14.361499 -10.511426 14.263012 184 157 133
19.127945 26.892861 21.043887 142 120 91
14.958616 -12.830650 12.295219 184 160 135
14.674404 -15.174109 11.779252 180 153 124
14.211294 -18.814691 11.119897 205 187 163
18.773491 34.311200 46.243344 128 137 127
15.010070 -12.792496 12.967304 175 147 126
13.479777 -24.550024 11.240175 143 141 132
16.000261 -8.076162 14.939794 200 173 152
19.370993 29.239447 46.053885 40 44 23
16.071091 -12.712022 12.300876 192 166 142
20.319868 24.994672 36.224759 177 161 143
22.196466 25.329438 24.740932 200 171 155
15.964428 -15.761863 11.058212 231 213 200
21.311611 25.118509 34.470148 130 166 153
21.313437 25.143133 34.470283 130 166 153
21.305217 25.469502 42.648110 206 191 182
23.487443 25.727042 25.321944 217 204 191
17.900907 -7.976037 14.727050 206 175 152
18.432300 -5.684963 16.325961 206 188 164
22.424555 26.149286 42.340094 195 185 176
21.891484 25.725934 47.017872 159 144 125
20.221590 3.518665 20.688171 215 191 169
17.359881 -14.935537 11.469804 188 161 137
22.494251 25.564215 47.567285 190 183 169
23.722730 25.326164 37.202874 204 196 185
20.830342 3.882487 20.245507 198 169 152
24.356380 25.254435 33.012476 167 190 189
23.057945 25.779325 47.048161 165 159 140
17.882188 -14.827750 11.790645 187 159 133
26.029155 25.241887 26.897095 208 181 164
2.249699 -13.998792 12.774576 176 152 128
1.067042 -5.950364 21.824308 101 97 84
4.656458 -16.052282 11.162300 210 184 162
1.041235 -5.606549 23.430883 165 173 170
3.693852 -11.543485 14.365794 170 145 124
2.279317 -7.044499 16.618777 173 146 125
-2.297309 25.030736 50.003541 8 16 6
-1.012529 25.504619 51.479369 68 84 60
10.621171 -24.150706 11.297791 125 119 84
-3.602894 42.802104 49.077907 186 191 160
8.104578 -6.654965 16.299517 200 179 164
7.876411 2.838194 20.442060 220 186 175
10.237737 -6.619032 15.803349 220 199 183
11.589691 -15.405973 11.808662 192 165 147
11.005509 -8.671232 14.907342 195 179 163
12.024369 -15.367630 12.097687 191 166 145
12.126993 -8.311443 15.244208 198 170 143
12.678641 -10.713805 14.127195 203 176 150
13.764447 -12.424937 13.389729 221 205 183
14.113296 -8.286052 14.682998 199 172 151
12.699723 29.177224 33.413558 146 160 179
15.224367 -24.604516 11.193798 146 150 131
13.590491 29.311611 34.747122 208 212 225
13.798649 29.307538 32.679554 195 210 229
15.653010 -8.155025 14.643732 201 175 151
16.084388 -15.038407 11.333289 194 173 142
17.255074 -23.306767 11.094837 129 123 100
18.495653 30.220248 40.713052 139 156 169
18.121716 -10.289834 13.752089 198 169 145
20.680542 25.195035 32.003959 204 182 173
19.099077 -7.722383 15.263292 198 171 145
20.279915 25.475114 46.406254 163 154 139
19.018763 -14.758449 11.695249 181 152 122
21.331663 25.440894 34.534247 133 161 147
22.756264 25.381167 37.206570 209 194 183
20.647217 -7.681795 14.723272 209 181 159
20.611927 -7.629812 15.119077 210 187 164
24.043119 25.243461 28.221110 221 206 196
23.614949 25.329775 34.650700 100 131 123
21.180265 -5.328953 16.129536 210 189 165
21.927270 1.776146 19.612741 219 191 167
22.941578 26.130446 48.154740 190 186 176
23.549551 25.882733 46.303025 202 199 184
25.117724 25.241297 28.454165 204 177 159
21.134134 -9.988622 14.350440 171 146 119
23.613552 25.790739 47.730063 199 199 189
22.112280 -2.952155 17.406642 215 194 177
22.820703 1.947271 20.118803 198 173 143
26.627930 25.747148 22.820827 203 189 178
21.362261 -12.186281 13.171997 199 175 158
26.134735 25.497444 28.763774 206 182 166
24.642919 25.975132 46.258498 203 189 176
26.746516 25.753101 25.172573 206 178 155
26.250613 25.940995 33.336122 138 158 158
26.616861 25.211221 29.133054 194 165 149
27.230113 25.709671 24.906420 192 169 152
21.537677 -14.511569 12.095072 192 171 147
21.943211 -12.174481 12.951222 209 183 166
21.690831 -14.561219 11.199750 181 162 145
27.201596 25.495569 33.771810 87 115 103
-24.787867 30.328402 46.817775 16 34 20
1.712984 -15.168185 12.307094 153 136 118
-24.033650 31.232213 42.341622 144 159 177
-25.038714 34.480473 29.769730 41 56 49
0.295755 2.579950 21.176080 192 180 164
0.246361 3.282903 24.968966 124 126 124
9.187180 -15.975660 11.017279 227 202 186
9.848769 -15.608501 11.704010 212 192 167
5.312937 0.408103 19.540300 222 194 173
-2.152722 27.048989 22.029344 20 52 25
11.225217 -10.947160 13.602547 183 167 144
12.500976 -14.518156 10.544921 212 188 165
10.253085 -5.964281 16.306842 178 157 143
16.378026 -27.109123 11.341483 118 108 99
10.716437 -3.503508 18.133976 203 179 158
13.599337 -13.060945 12.521916 174 150 128
12.692977 -7.927470 15.824506 216 197 180
12.895114 -8.365559 14.665596 190 163 142
9.701197 29.099806 40.786986 155 173 190
4.180346 75.842264 32.696198 225 236 228
17.942710 -15.041874 11.051133 211 187 166
12.687375 29.141421 33.438819 140 156 172
17.928594 -10.424067 14.132457 177 150 123
13.131214 29.044510 33.259144 173 193 210
19.543855 -23.428250 11.317002 94 102 63
13.646146 29.252249 29.666279 205 221 237
17.886896 -5.642974 16.300062 212 186 169
18.958103 -12.494211 12.490271 178 157 140
19.044923 -12.439290 12.967415 177 151 129
20.379220 -27.260027 11.328197 152 144 140
19.671917 -14.911856 11.213742 188 160 133
19.488632 -12.434788 12.844105 189 160 144
19.386791 -5.284713 16.682366 188 164 147
20.936875 -10.881306 13.344560 220 199 181
21.313387 -14.584584 11.590320 202 180 158
21.387724 -15.445349 11.072055 229 208 189
21.333195 -14.577773 11.958368 173 153 129
22.072046 3.926559 21.141272 182 161 139
23.076745 -2.806983 17.685017 185 158 139
23.232707 -9.846009 13.671552 209 190 173
23.679539 -7.415008 14.887735 204 188 172
-25.424351 20.933961 40.137774 174 157 139
-24.608331 20.509706 32.242882 194 193 187
-23.597434 21.815065 43.808620 110 90 73
-24.307033 21.887661 30.542326 161 148 131
-23.931668 22.003878 31.442404 172 158 142
-23.455651 24.914762 31.713817 154 153 134
-23.286648 25.874708 53.022734 51 76 55
-24.022860 25.615167 30.645199 133 139 121
-24.437941 28.657491 45.612814 56 58 44
-22.743932 26.735906 27.951510 106 116 106
13.397485 -25.386521 11.248404 105 100 96
0.776739 -7.200447 16.419573 174 153 135
-24.345950 34.164387 30.270967 63 76 69
1.186565 -4.647663 17.415774 185 159 141
6.959883 -13.540567 12.411811 196 170 150
8.882054 -13.338490 12.624551 191 170 147
0.171833 3.468156 26.124397 155 160 147
0.175298 3.431756 24.964319 153 162 147
0.106794 3.525623 24.968986 153 162 147
0.148006 3.754378 27.979846 141 185 154
2.177817 0.187211 19.279581 211 186 169
0.152466 4.609089 27.456799 143 143 134
20.584933 -29.667081 11.446958 102 101 95
11.886267 -10.823477 14.117738 152 132 110
15.274329 -12.833994 12.697504 194 163 142
14.297713 -8.227854 15.003977 188 163 133
20.720821 -22.956090 11.273450 226 207 190
21.731431 -25.493172 11.293709 122 117 111
4.056275 28.339047 32.629848 197 212 234
16.224023 -2.551159 16.560715 218 192 174
19.879418 -14.733870 11.148495 174 153 131
8.537746 28.299455 23.305770 48 103 69
22.823860 -22.994978 11.202967 122 120 89
21.453024 -14.591028 11.753352 202 181 161
22.553039 -18.074362 11.216686 204 184 159
19.327360 -3.133734 17.507572 220 192 171
20.626247 -7.639303 15.127424 219 190 168
12.875370 29.051169 33.980881 195 211 227
21.798688 -9.913099 14.346220 172 151 132
20.950192 -3.004887 17.414143 206 178 157
21.445603 -3.038198 17.231768 221 195 180
23.259632 -12.173364 12.440490 205 177 155
24.295151 -17.122050 11.100681 224 204 180
22.685033 -5.266686 16.630109 150 133 112
23.216367 -7.554844 14.634395 210 180 162
24.662917 -14.317252 11.280703 213 191 171
23.992768 -9.811560 13.502091 206 188 167
22.220758 4.109468 20.684200 194 168 148
-23.887378 24.033559 37.336029 150 141 126
-24.055987 29.489760 45.128276 59 60 48
-23.648316 30.487904 41.754386 141 158 179
-18.865321 26.140824 33.793036 182 190 191
-17.214948 26.122972 34.753545 180 198 193
-17.143255 26.042720 34.749976 180 198 193
-16.776342 26.617162 34.153447 38 47 49
16.477450 -15.314842 11.097341 218 199 177
16.730162 -14.974784 11.705216 205 174 153
-24.113264 48.904957 27.172664 28 40 36
-6.466066 27.145573 33.051932 172 196 202
22.008438 -19.545529 11.200859 212 198 183
17.200542 -9.363466 14.610675 199 186 169
21.948868 -17.416855 11.135841 222 198 180
20.180619 -12.311725 12.966245 204 176 161
16.017218 -3.418853 17.149524 203 184 160
20.339297 -12.401844 12.290221 179 162 136
21.558638 -14.538888 12.115251 204 182 158
18.329912 -7.851708 14.944246 165 146 115
22.273476 -14.529119 11.488393 179 166 150
22.633694 -15.137761 11.004366 214 201 185
25.044737 -20.327762 11.144508 219 206 192
-4.151653 45.241009 49.323206 180 175 156
22.532877 -9.869632 13.959655 175 154 137
22.684510 -9.751331 13.935674 206 185 168
17.520808 3.739480 21.169538 182 166 145
26.591740 -18.965538 11.166715 230 214 198
23.505517 -9.761664 13.525098 194 176 156
21.104165 -2.900091 17.578121 218 189 171
27.083996 -19.516765 11.227727 205 194 179
25.358880 -14.268496 11.251618 207 187 162
23.902591 -9.701652 14.125509 199 179 162
26.074023 -14.152964 11.323014 198 180 164
26.311202 -14.174192 11.597269 208 190 171
25.111216 -9.577794 14.628826 204 187 171
25.138856 -9.604117 14.150660 210 189 172
23.002770 -2.604475 17.683492 176 159 143
29.230398 -22.478725 11.278064 82 75 60
26.887404 -14.084579 11.843596 192 173 152
23.613851 -2.795735 17.560891 203 188 162
23.700411 -2.793125 17.209290 216 196 171
25.936647 -9.528933 14.053168 208 188 163
25.284269 -7.294987 14.973291 183 156 135
27.285431 -14.060331 11.371328 212 184 162
27.284284 -14.034063 11.713750 213 189 166
27.529372 -14.031457 11.732311 211 192 175
25.741281 -7.621136 14.522312 220 195 179
25.750847 -7.226642 14.993467 206 190 165
23.015899 2.586372 21.073722 187 160 141
27.531878 -11.670504 12.447736 203 181 167
26.577221 -7.185293 14.812517 200 181 166
28.354057 -13.956487 11.421525 224 204 180
30.267026 -20.658426 11.261624 222 206 181
28.756382 -13.954502 12.322159 200 187 170
27.099437 -7.149419 15.030751 209 182 164
30.847464 -22.638163 11.288885 113 115 86
26.729795 -4.827649 16.454272 198 171 151
18.824728 24.698695 45.875080 54 55 47
26.509117 -3.799574 18.464307 195 171 143
29.021472 -13.855444 12.247573 189 174 153
28.125286 -9.332847 13.718399 210 189 173
19.276191 25.496149 44.539110 18 30 14
28.278003 -9.401557 13.511609 205 186 171
29.375329 -13.926048 11.169911 176 158 135
29.427021 -13.858358 11.340053 209 183 168
29.757018 -13.819901 12.149664 209 190 170
29.669106 -11.578168 12.445322 198 179 164
2.143957 -2.497197 18.360264 191 169 146
-24.796470 28.298856 44.775760 34 44 36
-0.884504 2.315450 20.285796 192 174 156
8.047704 -6.482760 16.239891 194 172 149
12.812268 -10.769083 13.536029 171 150 122
-17.012594 25.898676 34.762568 184 187 182
-24.733938 34.080057 28.593003 31 44 33
-16.179857 26.782986 33.760254 146 159 169
-15.381534 26.855112 28.036543 28 32 26
-13.237207 24.898347 22.387359 72 93 77
19.668189 -14.076349 12.291144 193 180 164
20.136550 -14.617520 11.724486 201 173 145
-26.782572 46.933893 31.714284 40 51 45
-25.478839 45.397660 32.938065 42 53 52
17.669597 -8.951788 14.591132 201 190 172
21.854480 -14.521370 11.819849 208 180 158
14.069099 -3.672048 16.999219 196 167 138
24.171653 -17.453584 11.141821 214 198 182
-24.444721 49.019167 29.605654 54 45 40
25.129704 -18.500239 11.222100 197 186 167
-26.253755 51.655170 26.300028 43 46 42
17.472317 -7.863126 15.460444 154 137 118
24.384320 -16.913075 11.121795 215 186 160
-23.618616 50.549188 27.529478 40 53 46
23.746044 -15.845421 11.128979 209 191 167
16.040993 -3.444457 17.161813 203 184 160
13.187186 1.036129 19.255207 209 187 161
23.686193 -14.389495 11.321179 201 181 157
21.053015 -9.818720 14.275023 154 124 98
29.765147 -22.483848 11.355281 75 68 61
21.878580 -9.863571 13.894969 223 197 170
-1.393107 27.374066 30.169415 34 99 60
-1.675531 28.210253 28.695779 50 93 73
0.155289 27.568339 38.096019 138 157 184
17.507304 -1.018416 18.164196 190 164 142
22.838700 -9.743115 13.418194 186 165 152
30.882882 -22.044879 11.341224 223 202 174
27.783382 -16.122678 11.238961 213 205 184
25.548099 -11.828513 12.992862 202 182 158
26.860212 -14.045298 11.830398 197 178 154
28.111441 -16.276027 11.128646 214 207 184
29.754201 -19.200284 11.284513 218 200 180
29.139692 -18.097759 11.192229 217 209 187
4.503339 28.911174 33.702662 192 216 239
26.305688 -11.817187 12.448128 202 186 170
29.950633 -18.622600 11.140972 224 207 189
27.131139 -11.804135 12.330348 203 186 166
33.195998 -23.615165 11.476678 129 129 116
31.320837 -19.415450 11.251564 205 184 167
25.430153 -7.159042 14.807173 198 181 155
8.512899 28.439721 39.245659 24 75 40
29.480962 -13.824550 11.459927 213 194 179
29.459866 -13.796444 11.432903 213 194 179
22.348012 1.859593 19.804142 147 129 109
29.674919 -13.968415 11.139074 157 138 121
23.237181 0.949333 19.267761 213 191 174
34.384132 -23.797588 11.360693 121 117 111
31.748728 -17.452156 11.201875 108 83 65
32.866674 -19.111552 11.212698 220 204 185
32.158623 -16.889633 11.163017 232 210 188
31.808347 -15.933837 11.097882 224 208 192
29.073756 -9.089181 14.603525 209 188 168
32.564230 -17.397634 11.187557 200 173 152
31.366725 -13.918337 11.729688 216 197 181
15.122193 30.415403 34.197800 137 149 166
32.062080 -13.829436 12.562316 193 177 153
33.245697 -16.733516 11.135122 206 188 167
32.322838 -13.786566 12.399899 200 183 155
32.570576 -13.757828 12.470111 211 194 166
32.506756 -13.658288 14.572777 185 169 143
33.122585 -15.105998 11.120775 174 168 150
32.426089 -13.510735 20.109062 198 182 166
32.426115 -13.510137 20.108930 198 182 166
32.776460 -13.686331 14.196905 213 196 174
19.339504 24.750654 38.518159 40 78 60
33.021699 -13.553918 12.454196 173 158 128
32.805770 -13.542137 17.495333 213 198 179
32.895719 -13.525350 15.418376 208 196 176
32.661120 -13.358887 19.798000 212 192 175
32.830744 -13.464281 18.262676 211 196 177
32.670227 -13.265101 21.764017 202 188 161
32.874834 -13.120355 19.791430 162 146 124
33.314214 -13.075445 11.146773 108 103 84
32.922596 -12.108778 17.961489 172 156 129
33.125262 -11.685601 11.108285 135 123 107
20.943709 25.704773 34.092505 69 102 82
21.180836 25.031895 35.005491 68 96 77
32.686314 -9.982258 15.737355 183 166 140
32.975925 -10.122122 11.008799 169 152 128
21.766507 24.680724 34.352002 132 172 159
33.332152 -11.367385 11.087274 106 91 69
32.625224 -10.346410 19.624481 177 165 159
34.723841 -15.740766 11.143524 219 204 189
33.252555 -9.912931 11.085081 142 122 97
32.532309 -7.733969 13.802939 173 153 130
33.762879 -11.397339 11.044722 143 128 108
32.815298 -7.652014 10.961328 171 151 125
34.306889 -13.231200 11.094407 219 200 185
35.247428 -16.194004 11.266002 231 215 200
33.154658 -8.143643 11.017878 119 96 77
33.456379 -7.950186 10.946735 98 83 62
36.308885 -19.293620 11.393040 224 212 196
23.248212 25.236934 40.628031 203 192 181
23.977458 25.194490 34.428093 124 162 159
32.287284 -4.663611 20.290143 78 59 42
34.857708 -12.458326 11.119694 219 201 187
34.515617 -10.577546 11.049744 195 179 163
32.267530 -3.902454 21.656115 151 134 114
33.934158 -7.874900 11.000010 132 111 89
12.928393 -8.380562 14.672013 172 152 127
-19.654590 26.915573 35.011190 188 195 188
-17.851070 25.098421 33.653688 182 190 191
-17.968471 25.816892 34.340496 169 171 163
-16.163144 25.098330 33.595884 189 190 186
15.086721 -8.176717 15.322917 160 144 125
15.113792 -8.217031 15.336303 152 141 119
17.324098 -10.322839 14.336715 172 150 123
24.048153 -17.370537 11.029248 208 187 162
10.350571 -1.833905 17.807809 208 191 171
12.326252 -3.681514 17.005391 183 167 142
22.251889 -14.547177 11.247575 180 162 148
25.615604 -17.992674 11.216861 230 209 185
20.528914 -12.272448 12.907737 189 172 156
25.810359 -17.891087 11.286559 156 134 113
28.814658 -20.961351 11.332512 218 212 196
16.768578 -7.552843 14.985504 184 161 137
23.029300 -14.718409 11.059991 220 205 183
13.600768 -3.621467 17.188760 225 197 168
17.409105 -7.989204 14.642152 176 156 131
25.356650 -17.034641 11.126461 218 201 172
21.325958 -12.201991 13.158769 158 142 126
10.394692 0.656021 19.197547 189 171 149
20.791660 -11.583356 13.362421 206 189 169
19.693663 -10.019122 13.418446 176 157 134
20.064253 -10.223151 13.372121 206 194 181
25.546420 -16.383636 11.121070 171 155 128
-11.454129 26.834507 22.388683 78 94 86
24.252510 -14.585823 11.087286 221 200 180
18.868119 -7.795838 14.657020 166 141 116
-26.988883 47.193540 31.716066 50 60 56
-19.359568 38.789231 28.251543 26 29 25
14.480552 -1.292973 18.325368 207 187 162
31.441298 -22.079185 11.357263 221 199 175
18.427154 -5.523472 16.302734 189 167 149
11.836168 3.353161 20.561897 213 186 169
30.480389 -20.481167 11.178028 208 182 159
23.834719 -12.077621 12.348935 182 164 140
29.077310 -18.036202 11.144623 223 207 193
28.081258 -16.570148 11.067918 223 215 192
34.337195 -23.753771 11.313552 121 117 111
27.349673 -14.019073 11.951768 157 137 113
15.164757 3.683215 20.704059 206 181 163
-1.000010 26.857679 30.095728 29 96 44
26.734268 -12.211751 12.312974 225 204 185
24.096407 -7.425936 14.689335 199 183 167
21.334319 -2.824622 17.190231 224 202 180
16.986564 3.829617 21.161472 184 168 145
29.733089 -15.006652 11.068525 226 209 184
29.637382 -14.354281 11.094555 168 148 124
29.372905 -13.877120 11.564520 209 190 175
34.666953 -22.027154 11.198515 107 97 85
28.108065 -11.615706 13.461333 215 201 178
25.298348 -7.145557 15.300308 186 164 141
24.102462 -4.918368 15.784747 193 173 155
3.955075 28.542939 32.182880 191 208 226
22.171220 -0.663276 18.408999 224 203 183
30.192283 -13.755557 11.866039 216 197 176
32.847745 -17.941010 11.173862 221 206 180
20.155790 4.140151 21.157330 204 184 161
30.999878 -13.469199 12.322445 228 212 196
23.555195 -0.413950 18.523120 219 198 171
28.687264 -9.281839 14.131304 199 179 159
14.114125 16.922302 21.319074 42 37 26
32.027235 -14.710263 11.124233 243 225 194
31.509645 -13.440562 12.324786 211 193 178
15.234588 16.556118 25.893125 23 29 29
33.958230 -17.522230 11.152353 223 210 192
32.139947 -13.771623 14.026367 207 190 170
35.257709 -19.637883 11.302605 226 214 191
33.626923 -16.537004 11.186437 209 191 173
33.346169 -15.786913 11.170487 210 194 175
32.285840 -13.611462 17.242372 211 196 174
32.417575 -13.688792 13.439119 205 191 165
32.460287 -13.494706 18.463921 218 202 180
32.487012 -13.560022 18.491635 218 202 180
32.516207 -13.482418 20.441067 219 209 186
32.588227 -13.512779 17.459045 213 195 174
32.685063 -13.625875 16.424560 219 204 185
32.520858 -13.357390 20.570885 185 175 151
32.709425 -13.544022 12.298903 215 201 170
32.773351 -13.631618 15.637627 197 184 162
32.686692 -13.437457 17.793494 212 199 177
32.908013 -13.498437 14.625482 205 190 169
32.840667 -13.422696 17.431522 212 196 174
32.938173 -13.619155 18.931506 216 197 173
32.860109 -13.363468 19.662323 219 204 182
32.808150 -13.232907 21.241228 213 192 175
34.862974 -17.009031 11.150522 218 197 174
32.833373 -12.976591 17.087746 182 166 148
32.791046 -12.565119 20.669381 193 172 149
32.787992 -12.152157 19.368025 180 166 135
32.812087 -12.112133 18.607592 173 157 131
32.521884 -11.071725 19.943703 208 201 218
32.705921 -11.277599 18.901457 163 149 122
32.774653 -11.373081 18.422872 165 148 122
32.790313 -10.328290 11.061124 97 82 59
32.796521 -10.337097 11.070091 96 80 58
33.551310 -11.999401 11.020535 188 179 164
32.550113 -8.631869 13.710384 160 139 119
32.566533 -8.683090 13.740798 158 139 119
32.676502 -9.144074 18.511224 155 134 112
32.428355 -8.550967 18.329165 170 152 124
33.012243 -9.330525 10.966487 182 161 128
32.486223 -7.730652 14.370234 180 158 135
34.793004 -11.726724 11.125531 195 180 161
34.486175 -9.818096 10.983182 147 122 104
32.315236 -4.446500 21.392447 63 42 29
35.925452 -12.526836 11.127636 202 181 170
32.530961 -3.122067 10.923330 120 99 76
32.155133 -2.460289 13.880754 177 157 132
31.945791 -0.000673 14.362013 163 146 120
31.916551 -0.730987 18.715917 171 150 130
34.044219 -5.010464 10.906906 124 101 87
33.655042 -3.821956 10.844239 184 162 148
32.669702 -0.810816 10.812601 150 128 116
35.307959 -7.608318 10.931935 92 77 60
31.688879 2.812432 16.548604 165 150 129
34.590892 -4.919689 10.881319 120 101 86
32.828464 2.295192 10.694298 162 137 119
34.096150 -0.268624 10.842847 109 93 77
-33.527054 39.143094 27.319042 94 107 99
21.613873 -13.432506 12.436964 209 191 170
8.896509 0.583329 19.576068 220 192 167
22.588301 -14.072066 12.260219 201 186 167
21.669260 -12.190532 12.447314 196 178 153
23.707602 -14.358637 11.052324 170 149 130
22.636326 -12.901623 12.181183 212 195 177
-12.448833 26.395377 28.689190 47 101 68
14.738243 -3.599379 16.982468 191 163 140
24.346726 -14.375665 11.266064 188 168 143
10.472203 3.155764 21.214271 191 177 151
-18.731038 38.357720 30.017617 31 43 36
22.054462 -9.981000 13.679302 204 187 162
25.737031 -14.119891 11.980949 153 133 106
-25.311408 48.734095 30.558165 46 52 48
20.189478 -6.040682 15.817080 224 208 191
18.170832 -3.243673 17.415802 228 199 177
16.824966 -0.979918 18.620386 205 187 168
27.279083 -14.052272 11.362246 212 184 162
16.125190 1.369706 20.274563 211 191 167
24.289592 -9.841067 13.343434 225 210 191
25.824043 -11.754493 12.862594 199 181 161
22.889757 -7.412577 14.645755 212 194 170
27.502713 -13.626951 12.273614 207 187 162
17.919766 1.458487 19.353156 226 205 178
27.009792 -9.745407 13.460138 214 193 173
11.495478 16.583478 20.913811 170 156 126
21.422692 1.899141 20.195740 219 202 182
31.231802 -13.691016 11.626846 208 189 171
20.720246 4.135628 20.212210 194 176 153
32.510422 -13.559458 18.791457 215 201 179
32.749524 -10.543941 14.174982 157 137 113
32.686329 -10.074879 12.752822 186 169 143
32.700946 -9.896440 13.217396 177 163 132
33.526288 -11.400073 11.063865 170 156 142
32.585800 -9.264534 14.497988 184 163 142
14.465218 -8.228967 14.630537 197 166 135
20.444624 -13.906118 12.333548 212 197 178
21.199760 -14.543570 12.096115 191 169 149
19.402154 -12.391191 13.163844 151 134 110
11.169525 -3.814715 17.153289 194 179 160
21.603584 -14.779217 11.079203 226 206 182
13.517851 -5.959168 15.900525 207 181 146
21.839803 -14.501435 11.779220 196 174 155
12.434444 -3.669292 17.545815 205 185 161
18.652962 -10.224151 14.583173 194 179 157
20.827553 -12.274801 12.643679 199 180 165
11.670409 -1.444497 18.232671 205 188 170
23.244839 -14.372612 11.940746 102 83 66
14.957807 -3.531977 17.426063 198 182 166
13.569088 -1.360131 18.308335 227 200 170
22.155837 -11.383500 13.424710 215 198 180
15.772261 -3.422755 16.988001 195 172 150
19.844757 -7.718709 15.315293 190 171 148
18.744480 -5.469720 16.543291 94 73 55
13.279857 3.657839 21.118443 189 173 148
14.000419 3.353881 20.140874 221 191 163
28.960000 -11.624830 12.650289 204 184 170
14.855622 -13.224041 12.261299 236 217 185
0.231889 2.033259 20.329581 199 174 148
12.784380 -10.711013 13.866404 201 176 153
14.939853 -12.816372 12.528235 204 175 144
10.977505 -8.506465 14.847143 210 184 159
0.160200 3.423514 21.517769 111 114 104
17.256132 -14.887342 11.820514 188 167 137
7.424288 -4.200794 16.982199 181 160 133
17.579760 -15.084711 11.138636 218 198 172
7.818348 -4.086830 18.037028 171 146 124
8.253422 -4.112100 17.051098 191 170 142
17.972086 -14.848268 11.591225 174 148 112
16.185692 -12.858086 12.207257 227 200 174
11.311032 -6.090909 16.461436 212 190 166
15.054600 -10.537027 13.469679 176 146 114
8.581020 -1.774301 18.662267 212 184 158
12.053040 -6.065076 15.754497 198 171 143
17.424293 -12.570612 12.449770 198 169 135
13.655283 -5.935886 16.755201 198 178 153
13.611763 -5.948980 16.348832 210 184 157
12.540730 0.972788 19.317500 229 209 183
1.518495 27.125503 23.424726 49 53 52
22.990061 -5.204107 16.310608 213 187 170
22.340950 1.848682 19.808841 160 136 114
12.539895 -16.401418 11.019831 232 215 196
12.607391 -16.192710 11.063878 201 181 152
5.930806 -9.006807 14.675058 178 155 128
-23.494450 21.386615 24.842082 133 114 104
10.253346 -13.230694 12.528642 206 181 156
4.333918 -6.694883 16.142044 193 168 141
8.367252 -11.130919 13.527220 169 146 118
12.457290 -15.611144 11.083446 223 206 181
10.526312 -13.188023 12.323570 193 168 145
8.748207 -11.060237 13.633949 172 145 117
5.681270 -6.668811 16.063493 206 178 149
9.969629 -10.992346 14.455880 196 174 146
4.412321 -4.455450 16.931582 189 159 130
6.377146 -6.632090 15.803299 181 161 136
12.052591 -13.042082 12.913446 183 154 123
5.443387 -4.427593 17.918625 166 145 126
1.996316 0.001973 20.311071 209 183 160
8.944429 -8.629660 15.065799 201 173 149
5.660483 -4.347224 17.915513 173 155 127
7.322166 -6.538921 15.887142 193 167 140
7.634962 -6.427350 16.219845 213 187 158
9.607316 -8.613636 15.743053 210 193 173
0.178167 3.400756 21.517792 101 97 82
7.869254 -6.463851 15.875886 188 161 132
8.088746 -6.397450 16.646651 174 154 129
10.270867 -8.561692 15.286380 206 183 159
7.135577 -4.199950 17.454764 181 161 137
11.020442 -8.514046 15.267106 202 179 152
5.208677 0.265355 19.204961 198 173 146
-1.244895 27.337097 21.375730 37 56 39
6.553254 28.140275 21.897907 40 93 51
10.322458 26.537926 28.884583 17 45 23
4.569300 -13.787832 12.277722 166 143 118
1.228178 -9.405370 14.755786 212 177 144
3.673419 -11.575901 13.492011 170 151 126
1.325122 -7.057245 16.402557 184 162 138
6.173225 -13.600475 12.777422 198 182 157
4.456552 -10.858787 14.539433 203 184 164
-22.434277 26.433593 28.606723 51 50 45
7.006343 -13.499061 13.224557 183 166 144
4.046813 -9.136582 14.791814 210 174 142
6.621549 -11.309181 13.855776 178 156 127
5.361942 -8.995212 15.499538 167 146 122
2.654692 -4.590865 16.989236 170 150 125
6.711734 -10.159366 14.432811 211 189 165
5.065090 -6.745372 15.911609 197 173 147
3.745829 -4.490344 17.318324 216 182 154
6.741580 -8.928705 15.575272 187 172 147
4.102267 -4.465217 16.951236 207 175 145
6.934229 -8.861604 15.652152 175 160 135
4.690772 -4.441995 16.956966 192 160 130
4.812145 -4.450121 16.834248 218 198 173
3.271984 0.101911 19.653330 198 178 159
4.467504 0.282842 19.421589 223 195 170
11.384021 -13.136501 12.763630 222 194 173
7.561930 -1.854575 18.150951 202 177 148
6.778940 0.379786 20.121030 194 168 141
-1.253235 27.435769 28.693617 29 56 35
-5.860342 -5.455828 16.939250 187 158 127
2.409457 -17.418770 11.061379 249 229 200
0.279294 -14.144958 12.547923 211 187 153
2.707406 -17.705600 11.083212 206 177 145
2.346235 -17.220311 11.055418 214 188 156
1.988125 -16.281167 12.109386 196 169 143
1.911891 -16.334404 11.164672 194 170 137
-6.249030 -3.154734 18.939926 182 158 133
2.030667 -16.362971 11.135257 177 152 120
-3.092881 -7.499708 16.314868 208 176 149
-2.597490 -5.111543 17.702452 61 43 23
3.683130 -4.469326 17.850464 207 176 151
-1.701619 27.387185 28.654619 14 34 19
-10.983097 1.126272 21.066006 194 172 148
-6.842940 -7.859661 15.909281 216 187 163
-6.446038 -7.789307 16.169094 190 168 145
-6.103988 -7.702837 16.699877 192 168 146
-4.033668 -12.282802 13.470941 190 160 126
-2.889858 -14.433983 12.706766 201 170 142
-5.708815 -7.696788 16.193465 204 177 148
-3.204117 -12.193789 13.749085 209 178 149
-4.071879 -9.941978 14.655151 188 157 128
-5.626867 -5.389040 17.497265 218 196 170
-2.940681 -12.274707 13.394152 237 207 179
-4.471818 -7.692944 16.728788 196 172 146
-4.993546 -5.357641 17.024158 197 163 134
-3.621318 -7.576330 15.817580 189 158 130
-4.600562 -3.027872 18.090726 180 150 124
-2.102660 -9.742352 14.754066 203 173 147
-1.707488 -10.767806 14.559434 167 141 111
-3.891143 -3.028023 18.136020 185 154 125
-2.597375 -5.120517 17.702569 61 43 23
-1.822685 -7.406945 15.747242 201 167 140
-3.141414 -0.567139 19.543018 205 174 152
-7.916616 -12.576856 13.855887 181 154 127
-9.402432 -5.825705 16.999487 180 148 123
-8.232837 -8.058114 15.814931 190 163 134
-6.980279 -12.509502 13.425636 178 147 116
-8.067729 -8.014326 15.748817 183 157 128
-6.781594 -12.492666 13.690820 207 178 149
-7.944034 -7.995322 16.310647 208 185 162
-7.244056 -10.199838 14.967962 209 178 148
-5.331169 -16.983597 11.804082 189 159 124
-6.970936 -10.147451 15.659287 197 174 147
-7.563533 -7.925036 16.623771 153 128 105
-7.637250 -7.938343 15.849072 212 187 158
-7.511473 -7.917123 16.055585 201 176 151
-8.602557 -3.423630 18.192654 187 157 130
-7.724323 -5.611523 17.116178 203 172 143
-7.070428 -7.873324 16.292587 210 186 160
-7.553423 -5.618449 16.978830 190 160 133
-6.914783 -7.833235 16.712352 200 176 155
-6.423018 -5.500093 17.366366 213 187 161
-12.608731 26.098687 30.084349 51 96 63
-4.466168 -2.958537 18.681113 202 172 142
-4.381381 -2.917074 19.032575 184 158 139
-7.784570 23.629610 31.729182 106 127 137
-14.092872 -10.899647 14.804110 179 148 119
-14.067412 -10.992478 14.500551 212 189 161
-12.974834 -13.134482 13.476552 170 148 121
-15.345346 -1.783766 19.609953 190 166 142
-15.045305 -1.773505 19.443709 197 170 144
